# .PCD v.7 - Point Cloud Data file format
VERSION .7
FIELDS x y z
SIZE 4 4 4
TYPE F F F
COUNT 1 1 1
WIDTH 1452
HEIGHT 1
POINTS 1452
DATA ascii
789.598000 262.597000 549.855000
439.130000 778.597000 536.064000
84.130000 658.566000 537.855000
408.510000 756.597000 473.855000
104.130000 622.013000 608.855000
255.130000 836.221000 559.855000
399.803000 791.597000 255.855000
153.130000 224.597000 222.705000
432.130000 324.492000 575.855000
415.130000 428.772000 479.855000
28.130000 434.765000 373.855000
135.130000 729.597000 402.488000
349.130000 718.743000 613.855000
250.130000 560.880000 616.855000
249.130000 746.757000 282.855000
678.130000 612.597000 361.927000
173.130000 341.597000 525.222000
688.130000 634.597000 579.226000
255.130000 190.597000 347.482000
94.130000 241.774000 411.855000
279.687000 535.597000 611.855000
888.023000 772.597000 328.855000
414.034000 329.597000 530.855000
472.130000 195.746000 483.855000
270.527000 115.597000 355.855000
491.130000 322.597000 394.706000
430.774000 769.597000 476.855000
135.975000 499.597000 444.855000
275.596000 488.597000 560.855000
482.193000 733.597000 532.855000
564.130000 381.597000 502.228000
418.750000 453.597000 510.855000
288.130000 611.597000 627.715000
676.130000 666.287000 343.855000
323.130000 236.597000 565.447000
752.130000 460.670000 593.855000
427.753000 441.597000 547.855000
785.130000 332.262000 521.855000
646.747000 228.597000 593.855000
178.130000 697.383000 593.855000
428.130000 438.597000 544.593000
683.234000 451.597000 516.855000
246.075000 123.597000 377.855000
782.130000 743.597000 561.485000
174.130000 719.931000 523.855000
211.130000 161.597000 425.524000
373.130000 336.183000 545.855000
394.902000 246.597000 387.855000
219.130000 321.597000 227.464000
737.130000 507.597000 448.924000
845.130000 459.867000 578.855000
403.130000 783.597000 633.277000
513.130000 764.465000 456.855000
483.130000 496.597000 254.945000
396.130000 543.240000 450.855000
195.003000 248.597000 448.855000
335.117000 80.597000 416.855000
212.130000 163.571000 378.855000
400.130000 348.732000 511.855000
441.130000 194.597000 328.545000
713.130000 215.597000 257.051000
866.130000 308.184000 170.855000
457.130000 342.597000 485.265000
839.130000 490.139000 532.855000
77.130000 370.166000 432.855000
517.130000 211.237000 343.855000
315.130000 663.330000 586.855000
846.130000 420.408000 302.855000
552.130000 752.911000 478.855000
278.890000 91.597000 369.855000
247.373000 288.597000 438.855000
874.130000 644.852000 314.855000
604.130000 85.597000 521.325000
221.124000 271.597000 213.855000
146.130000 295.597000 265.822000
577.130000 491.597000 586.691000
565.529000 145.597000 530.855000
740.130000 424.597000 321.158000
534.130000 426.073000 190.855000
128.130000 243.956000 269.855000
275.130000 284.597000 429.099000
273.135000 715.597000 546.855000
705.130000 870.597000 401.991000
761.130000 598.597000 535.685000
534.130000 214.597000 449.285000
244.130000 607.597000 629.376000
878.130000 396.597000 507.609000
154.130000 280.306000 318.855000
787.130000 376.597000 304.555000
837.130000 695.473000 359.855000
270.977000 370.597000 542.855000
683.130000 329.486000 291.855000
934.130000 333.597000 278.176000
397.130000 758.597000 220.108000
707.130000 432.597000 332.329000
362.130000 759.380000 220.855000
647.130000 200.597000 322.463000
675.130000 361.597000 509.025000
81.130000 646.537000 603.855000
410.294000 551.597000 472.855000
529.130000 589.583000 176.855000
668.130000 524.597000 446.113000
712.130000 197.922000 565.855000
487.130000 601.597000 445.773000
592.130000 654.597000 581.749000
233.130000 715.597000 624.093000
507.130000 720.679000 595.855000
779.130000 775.120000 488.855000
109.130000 365.597000 422.942000
871.130000 359.240000 498.855000
667.130000 840.547000 428.855000
631.516000 206.597000 564.855000
887.063000 357.597000 261.855000
122.130000 623.572000 623.855000
191.130000 598.597000 503.048000
666.130000 533.087000 431.855000
388.130000 355.597000 437.361000
268.501000 178.597000 614.855000
418.130000 437.412000 567.855000
539.130000 188.246000 410.855000
677.130000 176.597000 466.142000
386.130000 55.309000 385.855000
815.130000 652.597000 302.001000
193.130000 344.597000 537.095000
135.130000 418.841000 241.855000
598.521000 771.597000 391.855000
682.582000 461.597000 301.855000
733.130000 895.032000 404.855000
488.130000 742.472000 446.855000
485.130000 855.514000 608.855000
237.684000 286.597000 428.855000
652.130000 588.597000 313.853000
429.130000 710.597000 598.353000
71.543000 378.597000 430.855000
358.130000 667.788000 581.855000
103.130000 463.238000 438.855000
147.139000 314.597000 470.855000
69.130000 435.597000 627.548000
679.450000 452.597000 502.855000
264.130000 711.219000 244.855000
434.130000 559.597000 196.117000
576.130000 707.441000 622.855000
58.130000 446.644000 435.855000
538.130000 479.597000 563.358000
545.130000 839.597000 562.398000
496.130000 134.892000 566.855000
828.130000 390.597000 281.366000
398.130000 463.597000 635.900000
623.130000 151.257000 255.855000
650.814000 138.597000 582.855000
563.062000 917.597000 567.855000
386.130000 772.045000 230.855000
692.130000 197.460000 572.855000
701.130000 786.653000 451.855000
727.496000 247.597000 286.855000
723.594000 871.597000 406.855000
540.130000 840.597000 618.897000
555.130000 155.597000 360.460000
501.444000 308.597000 379.855000
78.130000 446.845000 619.855000
613.130000 627.597000 599.824000
260.130000 155.597000 399.504000
631.927000 445.597000 614.855000
630.130000 671.597000 619.958000
181.130000 253.597000 329.092000
463.130000 674.597000 606.115000
737.130000 215.597000 243.133000
703.130000 637.597000 598.636000
721.130000 620.597000 365.993000
549.236000 320.597000 617.855000
415.130000 547.597000 469.413000
809.130000 769.912000 314.855000
432.130000 131.597000 322.676000
602.130000 169.597000 217.512000
377.130000 713.597000 189.915000
143.130000 298.597000 435.256000
379.130000 702.597000 236.949000
770.891000 747.597000 566.855000
772.130000 555.741000 586.855000
489.130000 747.597000 503.994000
86.130000 418.597000 379.043000
921.546000 699.597000 278.855000
468.130000 486.597000 630.895000
72.130000 457.597000 246.888000
383.168000 764.597000 211.855000
440.130000 480.597000 529.616000
809.130000 491.162000 511.855000
291.130000 271.312000 449.855000
587.130000 443.007000 578.855000
955.430000 378.597000 299.855000
941.130000 447.627000 330.855000
384.130000 142.835000 354.855000
511.130000 457.556000 239.855000
453.130000 408.597000 571.159000
651.813000 324.597000 598.855000
516.793000 494.597000 515.855000
703.130000 317.597000 515.067000
512.794000 480.597000 169.855000
782.130000 799.795000 475.855000
486.130000 841.597000 572.424000
420.681000 153.597000 597.855000
369.130000 650.597000 218.826000
420.130000 335.685000 515.855000
888.915000 447.597000 315.855000
589.552000 348.597000 562.855000
258.814000 747.597000 588.855000
460.130000 837.153000 583.855000
749.130000 730.597000 591.843000
469.130000 696.230000 616.855000
431.130000 473.597000 532.724000
648.130000 399.953000 313.855000
454.961000 468.597000 234.855000
710.130000 494.203000 264.855000
190.130000 416.587000 555.855000
427.130000 651.597000 485.923000
362.130000 858.534000 565.855000
414.130000 56.881000 408.855000
856.476000 546.597000 568.855000
641.130000 175.597000 569.434000
115.130000 315.171000 436.855000
925.914000 291.597000 283.855000
558.130000 528.597000 602.291000
188.130000 335.597000 212.183000
699.130000 200.018000 478.855000
509.130000 470.597000 170.863000
645.130000 242.597000 535.294000
891.130000 269.597000 288.554000
804.130000 668.597000 289.344000
450.130000 172.597000 484.268000
72.130000 633.597000 494.619000
581.130000 555.597000 596.431000
183.047000 805.597000 547.855000
751.130000 330.750000 276.855000
144.130000 734.597000 519.859000
382.524000 474.597000 473.855000
431.244000 194.597000 503.855000
442.130000 622.597000 456.732000
797.130000 370.027000 296.855000
304.130000 479.597000 638.516000
833.694000 303.597000 505.855000
815.130000 775.597000 515.461000
560.130000 152.597000 466.243000
852.130000 427.597000 305.780000
690.299000 394.597000 510.855000
727.130000 441.597000 224.491000
580.130000 536.597000 162.351000
335.130000 885.597000 623.679000
523.130000 98.005000 573.855000
469.130000 738.511000 596.855000
358.130000 230.217000 620.855000
497.130000 735.597000 582.741000
366.130000 646.597000 210.044000
268.130000 700.597000 229.550000
396.130000 698.302000 619.855000
682.130000 218.156000 564.855000
708.130000 384.597000 271.166000
145.130000 294.597000 348.217000
802.130000 802.215000 483.855000
637.610000 244.597000 537.855000
563.130000 234.597000 482.481000
903.130000 650.597000 306.979000
660.384000 218.597000 311.855000
750.130000 478.673000 249.855000
675.130000 221.597000 466.360000
778.130000 418.597000 492.014000
336.130000 272.889000 424.855000
213.130000 465.597000 486.154000
31.130000 393.597000 437.288000
686.407000 416.597000 255.855000
667.130000 761.597000 578.746000
155.130000 646.597000 603.883000
689.664000 466.597000 375.855000
236.458000 151.597000 358.855000
683.130000 223.912000 464.855000
804.182000 642.597000 349.855000
905.130000 409.597000 318.187000
386.182000 302.597000 597.855000
639.130000 831.597000 443.006000
89.130000 273.597000 347.142000
334.632000 514.597000 620.855000
300.130000 698.597000 206.499000
69.635000 475.597000 212.855000
708.130000 222.965000 546.855000
71.130000 637.983000 495.855000
208.130000 595.281000 602.855000
411.130000 515.953000 198.855000
620.130000 146.624000 241.855000
276.130000 192.718000 417.855000
706.130000 533.597000 442.753000
820.130000 374.115000 276.855000
476.130000 724.441000 605.855000
849.130000 642.597000 319.782000
287.130000 648.922000 236.855000
205.130000 255.597000 342.382000
908.130000 462.597000 242.806000
381.239000 485.597000 636.855000
520.130000 477.597000 539.642000
604.130000 741.597000 409.407000
181.355000 805.597000 555.855000
422.130000 932.047000 555.855000
584.130000 491.597000 158.583000
262.130000 594.737000 525.855000
202.130000 326.597000 235.225000
552.130000 471.597000 547.312000
493.130000 286.597000 586.127000
832.130000 641.231000 323.855000
888.097000 673.597000 269.855000
354.130000 730.216000 234.855000
258.665000 298.597000 438.855000
471.130000 196.890000 479.855000
435.845000 477.597000 524.855000
691.130000 682.597000 369.817000
483.130000 670.597000 620.045000
318.130000 705.597000 242.754000
390.130000 193.614000 536.855000
304.130000 402.597000 566.776000
677.130000 454.804000 339.855000
832.130000 388.162000 289.855000
606.130000 630.597000 388.988000
142.627000 314.597000 463.855000
592.130000 449.966000 540.855000
669.130000 641.877000 575.855000
655.130000 835.314000 434.855000
379.130000 520.597000 192.070000
778.130000 737.717000 295.855000
925.130000 325.597000 280.232000
113.130000 447.336000 394.855000
416.107000 828.597000 308.855000
699.130000 301.688000 526.855000
286.130000 662.597000 242.816000
592.346000 489.597000 597.855000
587.130000 393.597000 157.429000
70.370000 462.597000 300.855000
520.130000 205.597000 339.474000
391.130000 524.597000 189.945000
421.130000 800.839000 539.855000
675.130000 320.495000 300.855000
927.130000 612.597000 513.651000
571.130000 518.597000 591.118000
473.130000 261.597000 588.391000
633.382000 446.597000 393.855000
602.130000 229.597000 376.871000
753.130000 716.597000 344.398000
863.130000 602.597000 489.656000
752.340000 419.597000 237.855000
226.130000 390.733000 540.855000
812.604000 650.597000 302.855000
425.813000 736.597000 203.855000
808.130000 489.446000 295.855000
673.861000 457.597000 472.855000
881.130000 281.597000 142.702000
813.130000 483.597000 591.468000
792.130000 789.283000 502.855000
804.130000 480.132000 246.855000
628.130000 192.597000 575.297000
337.130000 580.597000 193.122000
656.130000 631.597000 605.154000
118.153000 381.597000 387.855000
528.852000 202.597000 539.855000
744.130000 385.597000 311.766000
310.706000 872.597000 560.855000
99.427000 355.597000 380.855000
583.594000 435.597000 522.855000
390.897000 449.597000 194.855000
231.130000 558.597000 479.902000
697.608000 267.597000 288.855000
491.130000 125.597000 566.693000
702.130000 351.597000 299.192000
779.130000 214.597000 582.177000
347.130000 760.710000 576.855000
889.705000 365.597000 491.855000
437.001000 147.597000 510.855000
548.130000 751.597000 400.348000
729.976000 203.597000 164.855000
626.442000 577.597000 293.855000
716.130000 210.499000 262.855000
401.130000 798.276000 241.855000
563.130000 703.581000 625.855000
604.130000 148.222000 500.855000
571.130000 810.088000 573.855000
107.130000 326.597000 433.383000
444.130000 596.597000 176.453000
325.130000 203.597000 456.323000
398.130000 319.828000 564.855000
397.130000 733.597000 200.734000
619.536000 439.597000 503.855000
128.130000 280.142000 273.855000
458.130000 125.654000 309.855000
404.130000 911.325000 572.855000
719.130000 199.448000 548.855000
234.130000 408.597000 218.007000
675.130000 830.597000 565.369000
177.130000 202.264000 621.855000
656.130000 833.812000 568.855000
271.108000 397.597000 557.855000
720.708000 872.597000 407.855000
796.130000 424.597000 312.949000
339.130000 511.530000 462.855000
310.130000 85.619000 346.855000
834.130000 801.515000 305.855000
875.130000 287.597000 163.601000
813.082000 499.597000 281.855000
596.276000 439.597000 530.855000
451.130000 580.597000 446.581000
529.130000 154.928000 562.855000
141.474000 261.597000 616.855000
560.516000 664.597000 615.855000
725.130000 500.579000 271.855000
446.130000 190.318000 514.855000
501.130000 731.597000 600.013000
645.130000 456.649000 429.855000
705.170000 448.597000 335.855000
798.130000 791.597000 517.328000
480.536000 312.597000 562.855000
527.778000 139.597000 377.855000
295.130000 200.488000 370.855000
438.130000 794.597000 528.456000
721.130000 646.242000 590.855000
216.446000 402.597000 561.855000
129.130000 333.419000 373.855000
443.130000 638.020000 462.855000
791.130000 731.597000 574.476000
693.130000 402.597000 261.197000
671.130000 768.761000 449.855000
539.130000 558.597000 606.326000
872.130000 506.810000 555.855000
569.145000 527.597000 606.855000
611.948000 235.597000 551.855000
436.130000 673.812000 605.855000
793.130000 415.752000 510.855000
632.130000 432.597000 326.964000
481.130000 220.598000 542.855000
731.130000 517.031000 457.855000
116.311000 212.597000 337.855000
312.130000 886.597000 620.977000
482.130000 107.597000 571.494000
432.130000 433.597000 207.064000
624.130000 831.597000 576.330000
485.130000 311.597000 389.841000
362.130000 513.597000 203.381000
225.130000 619.597000 506.569000
187.405000 277.597000 425.855000
470.130000 734.597000 485.548000
459.130000 461.597000 234.117000
504.130000 456.572000 233.855000
809.130000 690.597000 539.504000
566.264000 601.597000 453.855000
548.856000 407.597000 464.855000
730.130000 656.859000 311.855000
325.130000 680.597000 233.634000
638.130000 171.826000 297.855000
649.130000 246.597000 345.552000
197.130000 537.597000 488.684000
621.130000 537.597000 591.316000
579.130000 144.597000 477.266000
403.130000 759.597000 265.914000
519.347000 733.597000 495.855000
160.130000 278.597000 332.966000
518.130000 229.933000 606.855000
259.130000 743.597000 584.028000
964.865000 553.597000 347.855000
844.130000 430.597000 504.255000
452.130000 482.689000 619.855000
456.838000 331.597000 581.855000
363.785000 701.597000 192.855000
685.081000 205.597000 513.855000
715.069000 450.597000 223.855000
676.130000 678.738000 393.855000
356.171000 573.597000 190.855000
169.032000 730.597000 538.855000
381.130000 572.597000 187.518000
745.130000 620.597000 329.242000
903.163000 245.597000 325.855000
116.130000 250.301000 278.855000
269.130000 212.597000 591.134000
207.130000 656.597000 592.654000
350.266000 751.597000 586.855000
390.440000 656.597000 195.855000
655.130000 550.010000 591.855000
233.130000 370.597000 218.137000
345.686000 585.597000 604.855000
866.130000 375.543000 253.855000
408.130000 247.597000 399.212000
16.875000 504.597000 381.855000
222.130000 275.597000 350.454000
716.130000 646.972000 591.855000
612.130000 581.597000 538.121000
143.130000 265.597000 635.971000
566.130000 711.817000 611.855000
748.130000 328.462000 302.855000
544.139000 887.597000 597.855000
67.130000 455.061000 623.855000
418.098000 719.597000 178.855000
352.091000 445.597000 593.855000
935.130000 300.770000 321.855000
623.130000 734.597000 516.640000
512.130000 707.815000 588.855000
398.810000 742.597000 185.855000
551.130000 233.750000 489.855000
447.171000 886.597000 559.855000
676.560000 666.597000 578.855000
93.130000 441.597000 264.673000
260.130000 858.597000 614.813000
490.130000 183.199000 436.855000
233.130000 358.238000 558.855000
524.130000 381.597000 483.155000
433.130000 370.974000 516.855000
741.130000 407.112000 236.855000
17.130000 449.597000 378.348000
857.130000 742.650000 327.855000
279.421000 695.597000 210.855000
409.130000 69.597000 363.072000
704.130000 255.597000 296.715000
659.130000 545.597000 567.656000
215.130000 468.597000 483.863000
597.130000 476.317000 538.855000
616.498000 142.597000 239.855000
866.130000 445.597000 229.850000
690.124000 439.597000 256.855000
277.130000 353.597000 624.775000
480.130000 281.597000 377.764000
208.130000 214.231000 615.855000
109.130000 327.619000 370.855000
59.190000 648.597000 511.855000
160.091000 333.597000 427.855000
808.661000 774.597000 531.855000
647.130000 848.597000 593.082000
582.572000 893.597000 419.855000
416.332000 920.597000 545.855000
309.130000 510.597000 494.353000
567.130000 599.597000 435.591000
498.130000 190.749000 558.855000
403.130000 309.618000 602.855000
347.130000 760.597000 577.167000
59.130000 469.597000 231.673000
295.688000 200.597000 399.855000
643.130000 831.378000 572.855000
428.958000 187.597000 359.855000
371.130000 200.597000 485.394000
615.130000 817.597000 416.235000
848.130000 317.597000 515.129000
318.610000 867.597000 607.855000
570.130000 456.597000 596.760000
807.130000 655.597000 372.186000
333.130000 270.687000 584.855000
255.130000 177.548000 589.855000
788.130000 712.597000 346.580000
374.130000 513.597000 194.498000
759.130000 342.428000 281.855000
197.130000 668.597000 616.145000
285.130000 191.597000 348.478000
405.945000 752.597000 521.855000
420.130000 574.597000 622.794000
411.130000 466.529000 473.855000
595.130000 540.162000 281.855000
462.642000 386.597000 488.855000
207.130000 233.916000 474.855000
146.130000 317.597000 212.130000
185.130000 198.597000 596.136000
385.130000 675.316000 521.855000
424.130000 716.597000 627.698000
576.130000 250.597000 608.475000
710.130000 649.597000 587.509000
422.906000 283.597000 406.855000
114.130000 502.749000 402.855000
322.130000 221.958000 558.855000
391.597000 683.597000 611.855000
418.130000 594.597000 475.762000
250.130000 153.597000 393.441000
506.130000 427.510000 208.855000
629.130000 405.597000 317.741000
78.606000 260.597000 396.855000
586.225000 519.597000 619.855000
128.130000 393.597000 212.162000
156.130000 231.863000 275.855000
848.773000 618.597000 492.855000
519.130000 146.023000 561.855000
77.130000 520.597000 419.779000
123.130000 224.292000 311.855000
472.044000 604.597000 469.855000
731.130000 234.915000 267.855000
490.687000 806.597000 541.855000
263.130000 847.597000 558.714000
524.130000 531.597000 231.461000
494.130000 584.597000 461.203000
815.130000 638.597000 321.547000
503.130000 198.597000 328.656000
543.130000 564.597000 178.152000
751.130000 526.893000 592.855000
688.376000 679.597000 367.855000
668.188000 136.597000 563.855000
604.715000 440.597000 510.855000
361.230000 746.597000 234.855000
105.130000 386.597000 245.680000
165.130000 336.982000 495.855000
866.104000 772.597000 332.855000
417.130000 522.474000 443.855000
256.130000 555.353000 617.855000
136.746000 346.597000 389.855000
203.130000 270.597000 233.648000
369.130000 712.597000 488.994000
703.130000 545.524000 459.855000
483.130000 511.597000 238.987000
58.130000 293.036000 404.855000
424.130000 478.103000 507.855000
416.485000 498.597000 207.855000
433.130000 663.597000 488.381000
795.287000 360.597000 274.855000
522.130000 893.597000 562.812000
272.130000 729.597000 285.765000
868.130000 647.637000 337.855000
773.130000 693.798000 296.855000
432.130000 473.519000 591.855000
718.130000 796.597000 582.995000
958.098000 435.597000 279.855000
478.130000 136.833000 384.855000
426.130000 284.597000 403.808000
438.130000 86.508000 360.855000
227.130000 483.774000 473.855000
721.130000 765.423000 462.855000
684.130000 206.597000 447.781000
630.178000 198.597000 573.855000
703.130000 459.597000 517.203000
892.130000 299.758000 176.855000
944.859000 445.597000 338.855000
615.130000 873.597000 419.245000
447.130000 364.597000 449.146000
195.130000 181.597000 381.610000
468.130000 916.855000 396.855000
256.130000 189.597000 425.189000
378.130000 746.495000 186.855000
812.130000 793.715000 546.855000
606.531000 194.597000 585.855000
379.083000 105.597000 396.855000
167.088000 430.597000 218.855000
790.130000 676.840000 382.855000
530.130000 768.597000 400.948000
415.041000 611.597000 467.855000
690.606000 466.597000 279.855000
492.130000 100.597000 575.263000
891.130000 647.597000 330.003000
691.590000 446.597000 380.855000
312.130000 297.773000 428.855000
324.130000 523.597000 615.535000
304.157000 850.597000 573.855000
898.130000 375.597000 506.430000
493.130000 441.597000 219.590000
932.130000 484.605000 267.855000
610.130000 614.597000 423.215000
355.371000 69.597000 347.855000
268.907000 508.597000 551.855000
86.130000 412.597000 381.087000
55.130000 424.597000 239.471000
584.599000 242.597000 534.855000
497.130000 726.337000 402.855000
573.261000 845.597000 565.855000
432.123000 931.597000 564.855000
649.130000 233.788000 545.855000
553.130000 851.664000 570.855000
482.130000 757.597000 441.062000
297.436000 199.597000 442.855000
102.130000 450.597000 429.326000
325.130000 693.597000 199.285000
358.374000 548.597000 464.855000
800.130000 647.597000 352.976000
478.130000 171.597000 321.912000
167.130000 272.597000 284.667000
262.130000 747.444000 559.855000
297.130000 187.626000 436.855000
279.130000 876.597000 614.216000
492.536000 200.597000 556.855000
252.130000 657.597000 500.568000
433.964000 140.597000 322.855000
549.130000 195.597000 605.042000
533.130000 440.597000 167.245000
806.130000 414.597000 533.370000
556.130000 562.597000 601.822000
646.220000 459.597000 484.855000
707.130000 125.597000 482.664000
405.130000 516.597000 443.441000
193.130000 250.209000 430.855000
937.130000 517.597000 337.462000
245.130000 672.685000 596.855000
143.130000 735.297000 521.855000
436.130000 354.005000 551.855000
235.130000 480.188000 480.855000
680.520000 620.597000 373.855000
375.278000 98.597000 398.855000
396.130000 905.597000 578.300000
655.130000 226.597000 566.307000
124.549000 217.597000 363.855000
164.632000 236.597000 411.855000
47.977000 581.597000 602.855000
188.436000 413.597000 220.855000
699.130000 362.597000 278.171000
526.130000 130.714000 373.855000
154.130000 293.088000 427.855000
576.130000 753.597000 397.515000
654.659000 159.597000 573.855000
909.130000 279.597000 285.113000
216.130000 220.360000 601.855000
417.130000 776.950000 194.855000
447.130000 153.415000 586.855000
433.130000 348.597000 470.566000
241.130000 820.597000 559.822000
377.130000 535.597000 191.267000
185.130000 244.597000 328.640000
640.130000 431.597000 611.030000
439.442000 574.597000 596.855000
585.130000 566.597000 161.721000
657.298000 865.597000 427.855000
895.130000 438.597000 232.097000
335.130000 200.597000 445.219000
504.762000 737.597000 534.855000
406.118000 126.597000 325.855000
361.130000 896.597000 573.711000
755.633000 767.597000 573.855000
800.535000 720.597000 279.855000
410.130000 308.084000 592.855000
414.130000 710.516000 637.855000
37.130000 450.597000 625.042000
268.130000 557.597000 607.398000
872.130000 321.114000 171.855000
222.130000 361.793000 584.855000
698.130000 479.248000 266.855000
166.130000 715.229000 463.855000
670.130000 789.597000 594.376000
252.130000 852.597000 615.402000
474.130000 384.597000 193.820000
560.130000 152.165000 465.855000
633.130000 659.597000 619.376000
400.925000 303.597000 628.855000
398.130000 713.597000 194.798000
505.130000 519.455000 593.855000
209.130000 165.892000 623.855000
56.130000 635.597000 516.929000
703.354000 544.597000 450.855000
888.027000 224.597000 314.855000
741.130000 625.502000 325.855000
391.130000 53.370000 401.855000
425.763000 520.597000 446.855000
574.130000 474.597000 586.942000
354.130000 97.597000 404.859000
646.130000 241.597000 365.994000
778.130000 385.597000 245.673000
595.130000 206.758000 387.855000
576.130000 854.544000 574.855000
410.130000 577.597000 194.965000
556.130000 753.621000 399.855000
77.130000 443.499000 601.855000
657.410000 155.597000 478.855000
792.130000 476.597000 305.117000
492.130000 590.597000 568.824000
454.130000 558.597000 176.633000
395.632000 722.597000 606.855000
795.130000 665.594000 290.855000
328.130000 588.597000 202.967000
519.130000 747.597000 401.472000
492.130000 943.597000 420.750000
745.683000 514.597000 269.855000
876.653000 307.597000 191.855000
134.130000 246.597000 610.081000
455.130000 915.597000 402.068000
687.130000 672.198000 331.855000
388.178000 661.597000 612.855000
356.130000 715.005000 629.855000
643.674000 667.597000 395.855000
561.996000 527.597000 189.855000
880.130000 760.597000 333.435000
191.637000 251.597000 431.855000
499.130000 581.597000 182.658000
568.130000 489.858000 555.855000
437.186000 495.597000 379.855000
576.130000 664.597000 598.961000
6.130000 441.265000 411.855000
69.130000 456.597000 302.019000
515.130000 281.542000 379.855000
162.130000 301.597000 351.821000
725.130000 616.515000 598.855000
828.130000 386.579000 559.855000
163.130000 352.010000 236.855000
293.130000 680.639000 250.855000
654.130000 228.597000 565.733000
810.130000 648.920000 359.855000
658.130000 440.597000 403.445000
250.130000 821.612000 570.855000
530.130000 417.197000 322.855000
932.130000 493.575000 326.855000
326.130000 638.597000 221.954000
527.221000 188.597000 602.855000
713.130000 791.889000 550.855000
365.130000 682.597000 512.570000
910.130000 711.852000 333.855000
683.130000 440.597000 390.743000
557.132000 368.597000 548.855000
689.130000 462.597000 307.922000
448.130000 934.597000 408.898000
695.130000 318.277000 513.855000
268.130000 200.597000 420.928000
209.579000 352.597000 508.855000
444.130000 200.188000 327.855000
567.130000 607.475000 454.855000
782.545000 518.597000 541.855000
703.130000 722.597000 573.120000
498.130000 934.404000 420.855000
963.170000 477.597000 303.855000
656.130000 618.597000 328.670000
25.882000 367.597000 416.855000
531.130000 893.597000 603.619000
693.130000 195.597000 499.569000
756.906000 509.597000 458.855000
417.130000 486.450000 418.855000
644.130000 796.349000 602.855000
507.520000 618.597000 604.855000
811.009000 776.597000 296.855000
819.130000 771.597000 267.022000
702.130000 244.597000 454.390000
540.327000 412.597000 610.855000
650.808000 660.597000 455.855000
95.130000 438.597000 615.263000
705.130000 269.597000 279.088000
97.902000 258.597000 214.855000
669.130000 199.880000 509.855000
476.130000 576.245000 186.855000
440.130000 919.505000 543.855000
130.130000 286.171000 297.855000
763.130000 705.597000 348.736000
252.130000 744.597000 600.185000
885.130000 371.271000 242.855000
208.130000 365.597000 227.324000
432.130000 603.597000 592.132000
806.130000 685.597000 364.003000
823.130000 598.960000 501.855000
372.130000 195.394000 489.855000
706.378000 325.597000 523.855000
330.130000 197.377000 556.855000
416.130000 501.319000 408.855000
332.130000 204.612000 446.855000
592.130000 728.503000 470.855000
272.751000 369.597000 551.855000
164.130000 198.724000 348.855000
375.130000 459.597000 197.322000
706.130000 619.597000 329.218000
390.130000 702.597000 595.444000
535.130000 561.597000 602.724000
218.279000 842.597000 604.855000
418.130000 648.988000 184.855000
573.130000 519.040000 157.855000
362.466000 239.597000 617.855000
306.847000 880.597000 593.855000
275.130000 627.597000 622.572000
405.130000 490.959000 440.855000
58.130000 432.597000 628.724000
649.226000 466.597000 466.855000
556.349000 470.597000 197.855000
851.130000 497.597000 276.911000
853.130000 262.980000 543.855000
897.130000 446.597000 232.267000
730.130000 214.597000 264.843000
487.832000 532.597000 593.855000
453.130000 107.391000 326.855000
445.249000 326.597000 603.855000
898.130000 370.506000 240.855000
526.538000 776.597000 403.855000
943.130000 541.597000 319.119000
438.130000 282.597000 395.648000
596.356000 603.597000 615.855000
892.558000 607.597000 544.855000
458.979000 600.597000 584.855000
107.130000 639.005000 597.855000
787.130000 679.522000 374.855000
464.313000 487.597000 288.855000
563.091000 675.597000 616.855000
63.493000 555.597000 572.855000
588.130000 555.785000 252.855000
632.130000 164.630000 205.855000
194.130000 636.597000 594.160000
100.861000 234.597000 347.855000
744.130000 211.597000 553.207000
142.130000 742.597000 528.251000
457.915000 525.597000 457.855000
428.359000 765.597000 502.855000
515.130000 368.597000 522.918000
331.130000 626.597000 213.358000
691.699000 766.597000 574.855000
580.130000 249.597000 546.965000
356.130000 704.531000 596.855000
735.130000 500.734000 258.855000
159.130000 238.579000 235.855000
192.130000 677.597000 603.351000
885.130000 284.870000 156.855000
366.130000 376.597000 481.093000
201.325000 818.597000 631.855000
463.130000 334.184000 546.855000
502.476000 292.597000 384.855000
788.130000 507.290000 260.855000
196.130000 326.597000 235.649000
491.130000 391.597000 175.011000
820.130000 755.597000 278.897000
172.593000 404.597000 559.855000
685.130000 235.730000 448.855000
111.130000 282.252000 304.855000
693.130000 310.597000 587.365000
754.130000 341.597000 303.258000
587.130000 356.566000 592.855000
565.130000 713.662000 609.855000
275.130000 216.597000 418.182000
446.130000 212.597000 389.022000
134.130000 644.886000 497.855000
234.130000 738.280000 596.855000
737.130000 193.652000 171.855000
573.130000 724.597000 581.368000
590.706000 343.597000 555.855000
850.130000 487.597000 254.566000
959.311000 463.597000 285.855000
920.130000 305.597000 287.483000
435.130000 159.597000 594.994000
523.130000 709.534000 580.855000
424.130000 488.309000 574.855000
548.130000 188.002000 603.855000
149.130000 368.597000 212.146000
428.456000 871.597000 552.855000
435.144000 776.597000 434.855000
409.130000 449.139000 491.855000
236.130000 530.597000 488.786000
355.130000 288.597000 571.564000
396.130000 609.597000 193.371000
833.130000 280.597000 541.986000
139.130000 632.597000 600.809000
819.130000 647.597000 358.573000
496.130000 199.475000 437.855000
463.130000 618.767000 451.855000
787.130000 524.966000 573.855000
854.568000 803.597000 274.855000
267.130000 606.597000 627.013000
97.130000 375.597000 383.019000
425.130000 169.734000 586.855000
269.262000 211.597000 419.855000
488.130000 143.808000 324.855000
867.130000 597.908000 500.855000
571.130000 144.597000 559.098000
803.130000 409.357000 512.855000
565.712000 480.597000 189.855000
853.130000 508.597000 508.379000
482.130000 815.597000 592.393000
530.152000 492.597000 521.855000
385.130000 678.597000 222.890000
491.820000 678.597000 612.855000
457.130000 208.597000 332.868000
509.130000 848.597000 628.610000
253.130000 534.597000 465.207000
174.130000 289.597000 414.453000
583.130000 890.597000 420.415000
110.130000 239.597000 322.571000
529.599000 736.597000 404.855000
838.886000 769.597000 255.855000
679.130000 678.096000 388.855000
446.130000 168.597000 318.731000
649.130000 798.821000 430.855000
491.130000 98.597000 511.983000
35.130000 534.597000 433.084000
455.130000 383.597000 442.838000
137.130000 226.298000 316.855000
592.126000 489.597000 594.855000
832.777000 799.597000 279.855000
722.130000 624.597000 369.771000
934.130000 509.597000 290.411000
417.130000 493.843000 192.855000
452.613000 768.597000 619.855000
608.935000 740.597000 463.855000
775.130000 475.597000 241.594000
527.130000 468.751000 169.855000
788.130000 501.686000 525.855000
485.130000 292.597000 376.476000
718.130000 901.693000 407.855000
182.070000 183.597000 361.855000
601.130000 423.597000 324.840000
881.130000 374.886000 497.855000
754.130000 333.270000 297.855000
662.130000 592.115000 521.855000
478.130000 825.720000 545.855000
441.130000 99.995000 364.855000
580.130000 540.170000 581.855000
283.130000 847.597000 607.005000
566.130000 851.697000 576.855000
645.130000 630.597000 354.855000
108.135000 425.597000 384.855000
924.130000 343.597000 499.309000
433.130000 171.597000 372.162000
426.130000 905.597000 604.448000
172.130000 234.597000 607.900000
601.784000 612.597000 626.855000
502.130000 728.597000 555.090000
363.130000 571.597000 602.818000
103.432000 241.597000 308.855000
167.130000 325.991000 390.855000
426.130000 717.239000 209.855000
332.130000 487.515000 474.855000
458.130000 913.140000 559.855000
503.130000 215.968000 337.855000
541.468000 155.597000 571.855000
927.649000 283.597000 314.855000
782.130000 458.597000 307.714000
266.130000 206.366000 606.855000
317.430000 146.597000 348.855000
925.130000 655.108000 301.855000
523.130000 458.597000 202.173000
690.130000 776.597000 570.260000
456.130000 114.794000 536.855000
554.755000 94.597000 517.855000
360.130000 544.597000 192.812000
82.130000 633.597000 538.485000
609.130000 546.207000 284.855000
527.985000 393.597000 610.855000
786.801000 566.597000 467.855000
652.130000 582.158000 530.855000
588.130000 466.597000 588.421000
856.130000 399.597000 246.894000
126.130000 423.635000 596.855000
378.142000 314.597000 623.855000
699.931000 685.597000 342.855000
242.130000 565.597000 613.593000
393.398000 314.597000 575.855000
523.130000 505.597000 595.270000
127.130000 470.217000 443.855000
911.734000 567.597000 545.855000
551.130000 610.597000 431.688000
581.130000 474.751000 533.855000
168.130000 206.597000 638.510000
419.803000 219.597000 374.855000
216.130000 370.597000 212.350000
209.130000 294.840000 230.855000
561.130000 223.597000 399.298000
481.130000 537.971000 198.855000
417.130000 439.597000 208.791000
390.890000 639.597000 187.855000
607.130000 394.597000 515.126000
327.038000 275.597000 432.855000
156.130000 354.070000 599.855000
373.298000 645.597000 197.855000
966.130000 490.597000 316.519000
572.867000 691.597000 587.855000
488.130000 748.597000 503.599000
262.532000 489.597000 496.855000
424.130000 131.597000 510.522000
410.130000 743.597000 187.828000
566.192000 525.597000 183.855000
313.130000 878.060000 620.855000
133.312000 499.597000 436.855000
395.130000 445.597000 474.907000
543.130000 184.597000 346.752000
243.554000 158.597000 453.855000
196.130000 256.730000 335.855000
476.130000 388.226000 604.855000
771.130000 440.597000 488.416000
449.726000 749.597000 492.855000
338.130000 86.597000 408.061000
445.130000 880.597000 547.305000
503.122000 554.597000 626.855000
232.130000 722.131000 279.855000
293.130000 523.597000 588.547000
311.130000 711.597000 248.145000
489.130000 125.597000 368.000000
380.130000 129.597000 339.311000
295.130000 892.597000 634.283000
117.296000 458.597000 391.855000
299.130000 729.597000 544.892000
659.130000 878.597000 413.843000
370.130000 496.597000 195.102000
455.130000 210.597000 543.066000
148.130000 256.597000 614.678000
323.130000 431.597000 586.195000
356.130000 671.597000 225.672000
686.499000 802.597000 581.855000
163.130000 254.597000 288.481000
328.130000 520.597000 613.085000
469.869000 591.597000 182.855000
272.130000 366.597000 635.469000
591.130000 230.327000 401.855000
953.492000 364.597000 300.855000
928.250000 441.597000 237.855000
821.130000 484.597000 590.346000
139.130000 451.136000 600.855000
509.130000 521.597000 168.871000
863.130000 708.418000 346.855000
286.130000 721.597000 275.743000
159.130000 313.597000 496.697000
391.130000 260.644000 411.855000
818.130000 473.597000 589.936000
194.130000 756.597000 602.616000
420.130000 345.054000 452.855000
928.130000 550.597000 505.517000
520.130000 117.527000 569.855000
112.130000 312.597000 212.247000
685.130000 181.597000 522.284000
569.130000 337.597000 557.154000
649.568000 149.597000 549.855000
152.130000 485.597000 480.568000
210.529000 308.597000 231.855000
623.130000 658.597000 581.234000
399.130000 775.064000 231.855000
480.130000 178.597000 410.194000
643.717000 185.597000 269.855000
422.130000 360.597000 444.976000
581.130000 393.597000 602.874000
213.997000 842.597000 548.855000
295.130000 203.597000 396.506000
369.130000 333.506000 553.855000
456.130000 204.597000 522.549000
192.130000 598.597000 482.843000
942.130000 550.597000 332.536000
418.130000 621.597000 180.671000
540.130000 453.597000 204.571000
703.528000 447.597000 548.855000
315.150000 210.597000 569.855000
328.935000 636.597000 220.855000
152.621000 333.597000 493.855000
240.130000 573.755000 608.855000
223.130000 225.597000 414.997000
653.371000 325.597000 508.855000
742.130000 471.660000 578.855000
361.130000 81.597000 348.174000
514.130000 493.597000 582.480000
377.296000 220.597000 637.855000
735.130000 636.597000 597.998000
374.323000 860.597000 562.855000
274.130000 291.688000 429.855000
232.130000 594.156000 617.855000
378.130000 110.703000 394.855000
737.173000 359.597000 304.855000
394.130000 132.597000 378.605000
283.638000 695.597000 607.855000
90.225000 324.597000 243.855000
222.130000 623.597000 484.951000
519.287000 520.597000 575.855000
578.130000 96.957000 567.855000
879.130000 320.723000 212.855000
865.925000 776.597000 278.855000
47.094000 317.597000 432.855000
305.130000 366.597000 632.395000
866.194000 491.597000 304.855000
495.130000 498.597000 586.024000
181.130000 660.440000 589.855000
699.130000 811.597000 587.698000
784.130000 552.597000 589.165000
75.130000 357.597000 251.706000
193.130000 480.332000 494.855000
441.130000 770.597000 530.828000
523.130000 366.597000 176.743000
252.130000 702.916000 627.855000
397.130000 284.278000 634.855000
454.613000 919.597000 543.855000
743.219000 712.597000 342.855000
505.130000 739.737000 536.855000
118.669000 461.597000 420.855000
451.320000 809.597000 577.855000
535.210000 775.597000 403.855000
709.130000 858.261000 549.855000
528.130000 402.105000 484.855000
246.130000 677.597000 638.509000
514.130000 593.597000 461.114000
56.130000 308.597000 444.735000
476.482000 556.597000 461.855000
661.130000 319.740000 517.855000
56.130000 430.597000 212.317000
483.130000 485.080000 473.855000
408.130000 878.597000 574.962000
671.082000 601.597000 342.855000
28.130000 457.597000 438.756000
363.130000 719.597000 194.363000
109.341000 406.597000 410.855000
485.130000 676.597000 425.966000
670.130000 403.748000 309.855000
576.130000 315.017000 580.855000
667.331000 661.597000 346.855000
398.130000 124.597000 546.058000
381.130000 717.597000 514.058000
662.130000 839.363000 425.855000
157.450000 451.597000 604.855000
4.130000 492.597000 445.557000
577.130000 92.597000 524.058000
541.130000 529.469000 163.855000
88.983000 316.597000 436.855000
185.130000 177.597000 355.913000
361.130000 84.597000 415.968000
651.130000 172.597000 560.786000
557.893000 488.597000 567.855000
166.130000 737.843000 513.855000
545.130000 282.597000 398.917000
245.130000 663.140000 615.855000
609.130000 143.711000 249.855000
137.130000 494.597000 445.577000
846.130000 342.279000 502.855000
721.130000 195.896000 572.855000
244.130000 829.331000 614.855000
602.130000 627.157000 598.855000
381.130000 716.597000 192.631000
648.130000 594.597000 311.911000
672.130000 245.597000 327.031000
452.130000 614.597000 183.917000
606.130000 584.029000 534.855000
511.130000 769.597000 449.248000
579.130000 254.597000 610.225000
643.130000 249.102000 574.855000
14.130000 515.597000 445.560000
156.152000 247.597000 295.855000
519.653000 711.597000 577.855000
708.130000 380.597000 306.779000
699.130000 609.597000 326.548000
280.416000 395.597000 628.855000
718.130000 489.597000 283.930000
147.286000 420.597000 595.855000
829.130000 412.865000 552.855000
756.130000 408.597000 523.058000
428.130000 737.964000 637.855000
371.130000 678.597000 592.744000
559.130000 331.597000 618.402000
514.130000 579.597000 180.348000
501.130000 413.597000 173.202000
236.130000 594.782000 616.855000
95.287000 279.597000 336.855000
557.766000 580.597000 167.855000
672.130000 267.597000 323.703000
573.130000 527.597000 175.951000
456.049000 354.597000 514.855000
401.130000 342.183000 549.855000
607.130000 452.597000 592.953000
418.130000 378.597000 190.936000
692.130000 345.988000 547.855000
165.130000 702.597000 556.690000
843.601000 462.597000 569.855000
559.626000 353.597000 556.855000
290.130000 201.716000 573.855000
794.692000 209.597000 556.855000
536.130000 247.744000 603.855000
503.351000 505.597000 566.855000
285.130000 642.597000 204.600000
575.130000 786.565000 452.855000
517.130000 874.357000 614.855000
349.130000 780.862000 634.855000
504.130000 486.606000 571.855000
528.130000 476.597000 167.021000
812.130000 477.597000 247.061000
402.130000 737.597000 613.149000
420.130000 710.597000 611.919000
41.130000 445.673000 617.855000
402.130000 566.122000 472.855000
772.984000 324.597000 525.855000
493.130000 415.510000 610.855000
387.130000 348.887000 487.855000
386.130000 198.597000 489.625000
103.130000 289.444000 348.855000
630.130000 201.827000 577.855000
769.130000 270.597000 558.259000
245.130000 365.739000 606.855000
886.810000 693.597000 341.855000
279.130000 214.622000 560.855000
809.130000 473.597000 304.782000
341.130000 681.497000 575.855000
156.130000 631.597000 598.234000
611.130000 566.537000 580.855000
112.130000 641.597000 638.507000
373.130000 777.007000 252.855000
84.130000 367.597000 434.951000
72.743000 425.597000 257.855000
192.033000 309.597000 394.855000
577.899000 528.597000 251.855000
55.130000 355.597000 228.635000
96.130000 624.438000 519.855000
307.713000 120.597000 350.855000
679.130000 462.889000 355.855000
454.860000 337.597000 569.855000
573.130000 205.597000 395.202000
418.690000 773.597000 427.855000
102.130000 408.597000 384.261000
358.868000 572.597000 603.855000
707.130000 584.597000 509.859000
867.130000 488.597000 583.717000
631.130000 143.597000 479.111000
420.130000 633.597000 467.897000
108.130000 328.036000 433.855000
733.130000 464.191000 583.855000
600.130000 182.597000 583.698000
315.644000 712.597000 245.855000
643.130000 434.597000 554.076000
95.130000 305.636000 260.855000
743.130000 500.579000 436.855000
571.130000 147.597000 385.620000
138.665000 642.597000 514.855000
315.130000 487.633000 480.855000
666.130000 177.597000 505.574000
766.130000 217.597000 583.798000
67.130000 497.597000 435.567000
274.685000 195.597000 612.855000
735.130000 661.597000 374.399000
648.593000 416.597000 372.855000
308.422000 490.597000 475.855000
18.967000 500.597000 372.855000
355.130000 721.824000 522.855000
842.130000 266.597000 564.151000
956.897000 468.597000 304.855000
65.366000 331.597000 227.855000
706.843000 483.597000 390.855000
539.130000 383.597000 175.643000
296.774000 733.597000 247.855000
603.130000 164.597000 267.168000
620.130000 92.025000 500.855000
491.130000 401.848000 585.855000
434.715000 490.597000 216.855000
722.130000 646.597000 598.720000
804.130000 779.477000 528.855000
482.130000 125.597000 365.928000
599.130000 818.433000 431.855000
435.130000 680.597000 477.842000
73.130000 438.597000 598.336000
636.130000 230.990000 360.855000
355.130000 411.597000 625.809000
851.130000 398.597000 289.485000
845.130000 722.597000 259.515000
550.130000 210.000000 400.855000
427.818000 509.597000 444.855000
639.130000 134.597000 481.630000
319.130000 290.597000 422.365000
553.130000 152.408000 454.855000
154.912000 645.597000 628.855000
84.989000 252.597000 412.855000
516.953000 148.597000 389.855000
722.130000 293.597000 300.767000
671.415000 602.597000 346.855000
146.130000 264.597000 628.759000
314.130000 589.942000 602.855000
743.130000 540.520000 467.855000
125.130000 329.597000 212.176000
672.374000 329.597000 566.855000
499.130000 503.597000 625.814000
355.130000 659.597000 223.704000
479.130000 634.597000 638.510000
64.130000 528.244000 542.855000
443.130000 452.597000 216.547000
377.130000 733.434000 262.855000
441.130000 186.622000 324.855000
911.130000 393.597000 317.154000
737.240000 716.597000 327.855000
454.130000 677.245000 416.855000
211.130000 406.597000 563.152000
280.130000 507.095000 612.855000
642.069000 190.597000 567.855000
129.130000 224.597000 618.006000
227.130000 651.593000 610.855000
763.130000 532.552000 587.855000
358.130000 667.597000 224.715000
766.130000 671.597000 294.911000
366.130000 766.026000 238.855000
365.130000 361.723000 474.855000
587.130000 574.971000 535.855000
463.130000 201.597000 325.990000
670.130000 459.606000 465.855000
261.130000 742.046000 291.855000
151.130000 210.597000 371.808000
149.130000 721.265000 429.855000
106.130000 242.597000 411.788000
535.130000 837.597000 563.069000
465.130000 757.454000 611.855000
249.130000 245.597000 411.734000
149.130000 747.597000 417.424000
162.130000 629.597000 508.322000
675.130000 323.597000 505.014000
426.130000 351.445000 449.855000
474.130000 548.597000 460.452000
453.229000 505.597000 462.855000
253.130000 490.387000 475.855000
312.130000 125.597000 347.455000
557.818000 357.597000 561.855000
668.130000 184.597000 575.870000
282.130000 495.597000 565.780000
287.130000 139.258000 346.855000
162.130000 232.088000 272.855000
806.130000 696.597000 279.908000
436.130000 379.597000 186.809000
875.130000 775.850000 282.855000
644.130000 594.597000 534.546000
420.130000 278.597000 381.049000
429.130000 751.597000 614.095000
633.130000 173.597000 218.537000
496.130000 538.807000 207.855000
213.130000 599.289000 600.855000
179.130000 227.597000 604.526000
263.130000 759.597000 272.108000
447.130000 527.597000 464.624000
910.130000 357.597000 244.405000
822.130000 508.597000 590.501000
397.130000 285.971000 630.855000
289.130000 675.597000 607.306000
485.130000 814.134000 609.855000
336.679000 780.597000 630.855000
115.130000 471.811000 394.855000
454.749000 701.597000 488.855000
447.160000 203.597000 332.855000
674.130000 520.597000 434.260000
612.130000 659.597000 581.990000
883.130000 398.448000 503.855000
952.130000 362.300000 274.855000
730.130000 572.425000 518.855000
575.130000 769.516000 394.855000
480.130000 639.597000 619.657000
485.130000 330.597000 394.661000
877.130000 687.771000 345.855000
438.130000 933.247000 565.855000
431.130000 768.928000 507.855000
794.130000 791.597000 568.924000
26.475000 534.597000 432.855000
514.130000 107.597000 567.148000
516.130000 522.597000 167.529000
543.130000 542.241000 612.855000
111.789000 428.597000 392.855000
501.130000 136.597000 334.452000
336.130000 868.597000 576.723000
836.885000 491.597000 256.855000
78.130000 458.747000 436.855000
350.130000 578.597000 191.495000
275.130000 867.597000 615.469000
570.130000 187.281000 585.855000
286.130000 121.597000 348.465000
570.130000 538.597000 581.133000
390.130000 454.597000 194.700000
602.130000 402.576000 594.855000
179.455000 403.597000 227.855000
687.130000 651.597000 393.388000
167.746000 734.597000 552.855000
530.130000 526.046000 195.855000
699.130000 218.597000 467.110000
254.130000 110.597000 372.163000
760.130000 617.185000 533.855000
110.130000 277.597000 606.369000
261.130000 395.597000 582.816000
453.130000 178.859000 524.855000
702.130000 420.423000 336.855000
888.148000 417.597000 520.855000
115.801000 253.597000 634.855000
562.130000 462.597000 565.962000
716.130000 774.746000 591.855000
439.130000 812.796000 600.855000
581.029000 129.597000 568.855000
604.130000 561.597000 593.151000
782.130000 468.597000 241.978000
820.130000 404.411000 513.855000
774.130000 723.769000 584.855000
242.130000 586.597000 485.416000
437.851000 901.597000 546.855000
850.130000 504.597000 521.043000
217.130000 269.597000 347.529000
762.504000 552.597000 585.855000
